# Sample Point Cloud Data
# Format: X Y Z Intensity R G B
# 100 sample points for testing
0.0 0.0 0.0 100 255 0 0
1.0 0.0 0.0 110 255 50 0
2.0 0.0 0.0 120 255 100 0
3.0 0.0 0.0 130 255 150 0
4.0 0.0 0.0 140 255 200 0
0.0 1.0 0.0 150 200 255 0
1.0 1.0 0.0 160 150 255 0
2.0 1.0 0.0 170 100 255 0
3.0 1.0 0.0 180 50 255 0
4.0 1.0 0.0 190 0 255 0
0.0 0.0 1.0 200 0 255 50
1.0 0.0 1.0 210 0 255 100
2.0 0.0 1.0 220 0 255 150
3.0 0.0 1.0 230 0 255 200
4.0 0.0 1.0 240 0 255 255
0.0 1.0 1.0 250 0 200 255
1.0 1.0 1.0 260 0 150 255
2.0 1.0 1.0 270 0 100 255
3.0 1.0 1.0 280 0 50 255
4.0 1.0 1.0 290 0 0 255
0.5 0.5 0.5 155 128 128 128
1.5 0.5 0.5 165 138 128 128
2.5 0.5 0.5 175 148 128 128
3.5 0.5 0.5 185 158 128 128
4.5 0.5 0.5 195 168 128 128
0.5 1.5 0.5 205 128 138 128
1.5 1.5 0.5 215 128 148 128
2.5 1.5 0.5 225 128 158 128
3.5 1.5 0.5 235 128 168 128
4.5 1.5 0.5 245 128 178 128
0.5 0.5 1.5 125 128 128 138
1.5 0.5 1.5 135 128 128 148
2.5 0.5 1.5 145 128 128 158
3.5 0.5 1.5 155 128 128 168
4.5 0.5 1.5 165 128 128 178
0.5 1.5 1.5 175 138 138 138
1.5 1.5 1.5 185 148 148 148
2.5 1.5 1.5 195 158 158 158
3.5 1.5 1.5 205 168 168 168
4.5 1.5 1.5 215 178 178 178
0.25 0.25 0.25 80 64 64 64
1.25 0.25 0.25 90 74 64 64
2.25 0.25 0.25 100 84 64 64
3.25 0.25 0.25 110 94 64 64
4.25 0.25 0.25 120 104 64 64
0.25 1.25 0.25 130 64 74 64
1.25 1.25 0.25 140 64 84 64
2.25 1.25 0.25 150 64 94 64
3.25 1.25 0.25 160 64 104 64
4.25 1.25 0.25 170 64 114 64
0.25 0.25 1.25 85 64 64 74
1.25 0.25 1.25 95 64 64 84
2.25 0.25 1.25 105 64 64 94
3.25 0.25 1.25 115 64 64 104
4.25 0.25 1.25 125 64 64 114
0.25 1.25 1.25 135 74 74 74
1.25 1.25 1.25 145 84 84 84
2.25 1.25 1.25 155 94 94 94
3.25 1.25 1.25 165 104 104 104
4.25 1.25 1.25 175 114 114 114
0.75 0.75 0.75 200 192 192 192
1.75 0.75 0.75 210 202 192 192
2.75 0.75 0.75 220 212 192 192
3.75 0.75 0.75 230 222 192 192
4.75 0.75 0.75 240 232 192 192
0.75 1.75 0.75 250 192 202 192
1.75 1.75 0.75 260 192 212 192
2.75 1.75 0.75 270 192 222 192
3.75 1.75 0.75 280 192 232 192
4.75 1.75 0.75 290 192 242 192
0.75 0.75 1.75 205 192 192 202
1.75 0.75 1.75 215 192 192 212
2.75 0.75 1.75 225 192 192 222
3.75 0.75 1.75 235 192 192 232
4.75 0.75 1.75 245 192 192 242
0.75 1.75 1.75 255 202 202 202
1.75 1.75 1.75 265 212 212 212
2.75 1.75 1.75 275 222 222 222
3.75 1.75 1.75 285 232 232 232
4.75 1.75 1.75 295 242 242 242
-0.5 -0.5 -0.5 50 32 32 32
-1.5 -0.5 -0.5 60 42 32 32
-2.5 -0.5 -0.5 70 52 32 32
-0.5 -1.5 -0.5 80 32 42 32
-1.5 -1.5 -0.5 90 32 52 32
-0.5 -0.5 -1.5 55 32 32 42
-1.5 -0.5 -1.5 65 32 32 52
-0.5 -1.5 -1.5 75 42 42 42
-1.5 -1.5 -1.5 85 52 52 52
2.0 2.0 2.0 300 255 255 255
1.0 2.0 1.0 250 200 255 200
2.0 1.0 2.0 275 255 200 255
1.0 1.0 2.0 225 200 200 255
2.0 2.0 1.0 325 255 255 200
-1.0 -1.0 -1.0 25 16 16 16
-2.0 -2.0 -2.0 15 8 8 8
3.0 3.0 3.0 350 255 255 255
-3.0 -3.0 -3.0 10 4 4 4
0.0 0.0 5.0 400 255 255 255
0.0 0.0 -5.0 5 2 2 2
5.0 0.0 0.0 450 255 128 128
-5.0 0.0 0.0 8 16 8 8
0.0 5.0 0.0 500 128 255 128
0.0 -5.0 0.0 12 8 16 8
1.1 2.3 4.5 333 180 220 240
-1.7 -0.8 2.1 167 120 80 200
3.4 -2.1 1.6 289 240 100 160
-0.3 4.2 -1.9 211 60 240 40
2.8 1.7 -3.2 178 200 170 20